ply
format ascii 1.0
comment VCGLIB generated
element vertex 1485
property float x
property float y
property float z
element face 0
property list uchar int vertex_indices
end_header
0.7227573 -0.4955375 0.1853163 
0.7180282 -0.4950756 0.1800721 
0.7133006 -0.4945389 0.1747912 
0.7086447 -0.4932826 0.1691972 
0.7039572 -0.4922857 0.1637022 
0.6993336 -0.49064 0.1579222 
0.6947231 -0.4888345 0.1520731 
0.6900181 -0.4878621 0.1465718 
0.6852862 -0.487042 0.1411307 
0.6806018 -0.4857308 0.1354776 
0.6759079 -0.484519 0.1298558 
0.67115 -0.4838068 0.1244435 
0.6664016 -0.4830389 0.1190119 
0.6616427 -0.4822585 0.1135626 
0.6569208 -0.481023 0.1079108 
0.6521734 -0.4800532 0.102365 
0.6474077 -0.479214 0.09687854 
0.6425951 -0.4787821 0.09156292 
0.6377724 -0.4784326 0.0862885 
0.6329589 -0.4780237 0.08098088 
0.6280905 -0.4781106 0.07589366 
0.623199 -0.4785358 0.07096155 
0.6183026 -0.4789057 0.06599762 
0.6134223 -0.4790917 0.06094639 
0.6085061 -0.4796872 0.05608908 
0.6035854 -0.4803544 0.05126246 
0.5986831 -0.4808154 0.04633862 
0.5937486 -0.4815319 0.04152397 
0.5888037 -0.4825355 0.03685338 
0.5838026 -0.484207 0.03248542 
0.5786941 -0.4874293 0.02885079 
0.5734339 -0.4928507 0.02626646 
0.5675668 -0.5071346 0.02787369 
0.5618876 -0.5192518 0.02849743 
0.5564035 -0.5287582 0.02791057 
0.5511539 -0.5352297 0.0259005 
0.5459195 -0.5415819 0.02384857 
0.5407239 -0.5475038 0.02160716 
0.5355166 -0.5539323 0.01962159 
0.5303074 -0.5605624 0.01774845 
0.5251297 -0.5669974 0.01579781 
0.5199808 -0.5732809 0.01378672 
0.5148766 -0.5787649 0.01140766 
0.5098482 -0.5832844 0.008559883 
0.5048434 -0.5873882 0.005528748 
0.4998925 -0.5906924 0.002111081 
0.4950072 -0.5928674 -0.001856472 
0.4901645 -0.5943857 -0.006146502 
0.4853689 -0.594797 -0.01098295 
0.4805742 -0.5951677 -0.01584092 
0.4758009 -0.5948829 -0.02103094 
0.4711324 -0.5922639 -0.02738646 
1.026375 -0.2288207 0.3488403 
1.016785 -0.2540873 0.3525915 
1.0083 -0.2735553 0.3543299 
1.000765 -0.2880057 0.3543104 
0.993964 -0.2985652 0.3529344 
0.9871743 -0.3091878 0.3515921 
0.9800428 -0.3218993 0.3510444 
0.9729398 -0.3346112 0.3505244 
0.9661964 -0.3453875 0.349333 
0.9596913 -0.3549838 0.3477314 
0.9534588 -0.3630559 0.3455879 
0.9473506 -0.3705731 0.3432566 
0.9413779 -0.3773048 0.340658 
0.9355884 -0.3830796 0.3377087 
0.9299255 -0.38814 0.334518 
0.924234 -0.3934393 0.3314173 
0.9185014 -0.3990714 0.3284558 
0.912654 -0.4055047 0.3258145 
0.9068376 -0.4117882 0.3231284 
0.9010195 -0.418201 0.3205073 
0.8953074 -0.424032 0.3176765 
0.8896307 -0.4297221 0.3148029 
0.8839741 -0.4353456 0.3119161 
0.8784561 -0.4401214 0.3087192 
0.8729954 -0.4446291 0.3054256 
0.8675103 -0.4493464 0.3022252 
0.8619688 -0.4544767 0.2991956 
0.85646 -0.4594833 0.2961275 
0.8510336 -0.4640129 0.2928798 
0.8456959 -0.4679804 0.2894282 
0.8404248 -0.4715236 0.2858088 
0.8351108 -0.4754363 0.2823429 
0.8298472 -0.4790459 0.2787662 
0.8244988 -0.4833133 0.2754682 
0.8189945 -0.4887161 0.2726267 
0.8137374 -0.4924742 0.269132 
0.8086028 -0.49534 0.2652888 
0.8037994 -0.4958555 0.2604956 
0.7991292 -0.4953055 0.2552699 
0.7946209 -0.4935234 0.2495281 
0.789923 -0.4931121 0.2443416 
0.7851349 -0.49343 0.2394533 
0.7802698 -0.4942723 0.2347851 
0.7753339 -0.4956665 0.2303331 
0.7705311 -0.4960047 0.2254541 
0.7656337 -0.4971545 0.2209078 
0.7607081 -0.4984724 0.2164288 
0.7559842 -0.4981773 0.2112851 
0.7510703 -0.4993629 0.2067523 
0.7462397 -0.4999581 0.2019711 
0.7413778 -0.5007704 0.1972804 
0.7365873 -0.5009436 0.192318 
0.7318012 -0.5010696 0.1873327 
0.7270454 -0.5008775 0.1822097 
0.7223383 -0.5002649 0.1768997 
0.7176442 -0.4994783 0.1715158 
0.7129554 -0.4986262 0.1660908 
0.7082761 -0.4976144 0.1605971 
0.703643 -0.4961617 0.1549036 
0.699042 -0.4943089 0.1490307 
0.6944654 -0.49214 0.1430105 
0.6897449 -0.4913224 0.1375712 
0.685172 -0.4889983 0.1314654 
0.6805056 -0.4874783 0.1257022 
0.6758134 -0.4861848 0.1200399 
0.6710377 -0.4856826 0.1147146 
0.6662605 -0.48508 0.1093478 
0.6614891 -0.4844741 0.1039731 
0.6567571 -0.4833542 0.09835842 
0.6519765 -0.4826938 0.09294797 
0.647166 -0.4823331 0.08766936 
0.6423341 -0.4821696 0.08247947 
0.6374978 -0.4819938 0.07727817 
0.6326327 -0.4821017 0.07220383 
0.6277321 -0.4826159 0.06731027 
0.6228147 -0.4833432 0.06251547 
0.6179348 -0.4835638 0.05748244 
0.6130379 -0.4839406 0.05252251 
0.6081693 -0.4840451 0.04742948 
0.6032234 -0.4850824 0.04277762 
0.5982728 -0.4861144 0.03811646 
0.593336 -0.4869858 0.033386 
0.5883431 -0.4885938 0.02899577 
0.5832677 -0.4913007 0.02512432 
0.5781026 -0.4953908 0.02191425 
0.572271 -0.5089901 0.02322452 
0.5665683 -0.5211445 0.02387891 
0.5610197 -0.5314662 0.02369452 
0.5557561 -0.5379609 0.02170585 
0.5505307 -0.5441316 0.01957139 
0.5452941 -0.550615 0.01760547 
0.5400388 -0.557655 0.01592629 
0.5347701 -0.5652093 0.01451853 
0.5295588 -0.5720873 0.01279002 
0.5244143 -0.5781731 0.01069726 
0.5193313 -0.5833474 0.00817233 
0.5142972 -0.5878682 0.005342599 
0.5093074 -0.5917993 0.002235543 
0.504361 -0.5951078 -0.001173917 
0.4994757 -0.5972827 -0.005141467 
0.4946161 -0.5989972 -0.009326663 
0.489806 -0.5997767 -0.01397902 
0.4850411 -0.5996212 -0.01909536 
0.4802839 -0.5991796 -0.02435878 
0.4756925 -0.5950928 -0.03146086 
1.030506 -0.2354333 0.3456554 
1.021121 -0.2594352 0.3489914 
1.012766 -0.2780991 0.3504716 
1.005402 -0.2915075 0.3501019 
0.9985658 -0.3021986 0.348779 
0.9917343 -0.3129723 0.3475151 
0.9846784 -0.3251716 0.3467978 
0.9776385 -0.3374487 0.3461374 
0.9709212 -0.348039 0.3448895 
0.9644206 -0.3575185 0.3432583 
0.9582074 -0.3654524 0.3410751 
0.9521008 -0.3728795 0.3387234 
0.9461164 -0.379651 0.3361449 
0.9403075 -0.3854905 0.3332314 
0.9345996 -0.39079 0.3301259 
0.9288637 -0.3963383 0.3271281 
0.9231309 -0.4019442 0.3241743 
0.917267 -0.4084108 0.3215444 
0.9114664 -0.4145694 0.3188252 
0.905734 -0.4204018 0.3159861 
0.9000545 -0.426 0.3130732 
0.8943827 -0.4315712 0.3101678 
0.8887698 -0.4368789 0.3071652 
0.8832923 -0.4413879 0.3038661 
0.87786 -0.4456531 0.3004785 
0.8724706 -0.4496754 0.2970125 
0.8670405 -0.4540474 0.2936813 
0.8615544 -0.4588127 0.2905248 
0.8559904 -0.4642118 0.2876226 
0.8506745 -0.4679765 0.2840911 
0.8454178 -0.4713938 0.280422 
0.8403072 -0.4738497 0.276375 
0.8352423 -0.47599 0.2722118 
0.8301616 -0.4783109 0.2681261 
0.8246481 -0.483741 0.2652902 
0.818992 -0.4902033 0.2628866 
0.8137161 -0.4940549 0.2594419 
0.8087929 -0.4953932 0.2549755 
0.8041142 -0.4948805 0.2497579 
0.7996839 -0.4925237 0.2437744 
0.7949324 -0.4925355 0.238758 
0.7901437 -0.4927915 0.2338363 
0.7851502 -0.4946015 0.2295598 
0.7801625 -0.4964047 0.225285 
0.7751189 -0.4986486 0.2211992 
0.770176 -0.5000905 0.2167763 
0.7652746 -0.5012686 0.2122412 
0.7603553 -0.5025371 0.2077435 
0.7554208 -0.5039607 0.203321 
0.7504813 -0.5054498 0.1989258 
0.7455692 -0.5067016 0.1944287 
0.740774 -0.5070009 0.1895235 
0.7359911 -0.5071313 0.1845464 
0.7312157 -0.5072038 0.1795353 
0.7265362 -0.5064324 0.1741623 
0.7218487 -0.5056262 0.1687647 
0.7171572 -0.5048328 0.1633777 
0.7125266 -0.5034764 0.1577363 
0.7078822 -0.5021694 0.1521069 
0.7032856 -0.5003752 0.1462553 
0.6987075 -0.4983663 0.1403043 
0.6940831 -0.4966574 0.1344782 
0.6895173 -0.4943355 0.1283678 
0.6848643 -0.4927944 0.1225976 
0.6801593 -0.4917023 0.1170247 
0.6754115 -0.4909135 0.111584 
0.6706511 -0.4902742 0.1061922 
0.6659305 -0.4892197 0.1006216 
0.6612028 -0.4881132 0.09501588 
0.6564431 -0.4873026 0.08953871 
0.6516477 -0.4868307 0.08420888 
0.6468195 -0.4865996 0.07898785 
0.6419628 -0.4867638 0.07393899 
0.637086 -0.4870396 0.06894856 
0.6321921 -0.4875462 0.06405781 
0.6272973 -0.4880261 0.05915033 
0.6224138 -0.4883427 0.05416306 
0.6175132 -0.4888237 0.0492514 
0.6126012 -0.4895154 0.04444594 
0.6076902 -0.4901485 0.03960086 
0.6027489 -0.4910763 0.03489684 
0.5977955 -0.4922522 0.03030476 
0.5928733 -0.4929729 0.02550327 
0.5878313 -0.4952793 0.02145132 
0.5827013 -0.4988374 0.01799889 
0.5769713 -0.510778 0.01853803 
0.5712695 -0.522747 0.0191221 
0.5656011 -0.5346544 0.0197092 
0.5602984 -0.5415424 0.01791481 
0.5550702 -0.5476188 0.01575279 
0.5498067 -0.5545636 0.01401549 
0.5445142 -0.5620633 0.01257639 
0.5392438 -0.5695545 0.011145 
0.53405 -0.576072 0.009254307 
0.5289253 -0.581784 0.00699117 
0.5238255 -0.5872012 0.004593078 
0.5187999 -0.5914876 0.001656171 
0.5138102 -0.5953429 -0.001487914 
0.5088613 -0.5986285 -0.004901338 
0.5039728 -0.6009439 -0.00878932 
0.4991117 -0.6026714 -0.01296861 
0.4943042 -0.6035544 -0.01756719 
0.4895016 -0.6040456 -0.02235951 
0.4847546 -0.6036945 -0.02757877 
0.4801178 -0.6006901 -0.03413155 
1.052927 -0.1710151 0.3223791 
1.034829 -0.2409973 0.3421058 
1.025419 -0.2649813 0.3454769 
1.017258 -0.2824703 0.3465619 
1.009955 -0.2954661 0.3460585 
1.003188 -0.3056862 0.3445835 
0.9963391 -0.3165389 0.3433648 
0.9893593 -0.3282252 0.342478 
0.9824685 -0.3395664 0.3414871 
0.9756626 -0.3505683 0.3404132 
0.9691737 -0.3599167 0.338739 
0.9629741 -0.3677218 0.336516 
0.9569133 -0.3748144 0.3340549 
0.950955 -0.3813893 0.3314039 
0.9450873 -0.3875384 0.3286198 
0.9392979 -0.3932754 0.3256862 
0.9335352 -0.3989819 0.3227525 
0.9277695 -0.404734 0.3198515 
0.9219151 -0.4110965 0.3172008 
0.9161302 -0.4171502 0.3144434 
0.910451 -0.4225805 0.3114582 
0.9048147 -0.4278686 0.3084327 
0.8991926 -0.4331184 0.3054036 
0.8936328 -0.4380049 0.3022434 
0.8881837 -0.4423092 0.2988703 
0.8827823 -0.4463418 0.295397 
0.8773625 -0.4505107 0.2919858 
0.8719591 -0.4546355 0.2885693 
0.8665479 -0.4588987 0.2852146 
0.8610071 -0.4640639 0.2822268 
0.8555934 -0.468457 0.2789356 
0.8502665 -0.4722951 0.2754427 
0.8451846 -0.4745549 0.2713234 
0.8401839 -0.476216 0.2669643 
0.835243 -0.4774887 0.2624461 
0.8303289 -0.4786149 0.2578704 
0.8249453 -0.4830602 0.2546488 
0.8192127 -0.4900615 0.2524742 
0.8139866 -0.493523 0.2488714 
0.8091826 -0.4939232 0.2440192 
0.8046643 -0.492201 0.2382875 
0.7997804 -0.4931771 0.2336683 
0.7948504 -0.4944898 0.2291811 
0.7897419 -0.4971709 0.2252721 
0.7845944 -0.5001719 0.2214955 
0.7795082 -0.5028056 0.2175733 
0.7745064 -0.5047514 0.2133677 
0.7695366 -0.5064262 0.2090478 
0.7645907 -0.5079693 0.2046729 
0.759592 -0.509962 0.2004956 
0.754649 -0.5115188 0.196131 
0.7497448 -0.5127578 0.1916343 
0.7449077 -0.5133846 0.1868763 
0.740119 -0.5136417 0.1819556 
0.7353786 -0.5134971 0.1768597 
0.7307113 -0.5126268 0.1714502 
0.7260551 -0.5116557 0.1659882 
0.7214018 -0.5106521 0.1605025 
0.7167569 -0.509468 0.1549343 
0.7121406 -0.507975 0.1492256 
0.7075512 -0.506158 0.1433706 
0.7029995 -0.5039645 0.1373413 
0.6984032 -0.5020899 0.1314382 
0.6937971 -0.5002469 0.1255403 
0.6891476 -0.4987187 0.1197803 
0.6844618 -0.4974955 0.114149 
0.6797374 -0.496621 0.108666 
0.675004 -0.4957844 0.1032031 
0.6702628 -0.4949524 0.09772359 
0.6655432 -0.493895 0.09214036 
0.6607965 -0.4929588 0.0866131 
0.6560203 -0.4923497 0.08122091 
0.6512281 -0.4918573 0.07588381 
0.6463942 -0.4917743 0.07072185 
0.6415267 -0.4920595 0.06573395 
0.636639 -0.4925238 0.06082814 
0.6317453 -0.4930389 0.05593937 
0.6268716 -0.4933237 0.05094554 
0.6219767 -0.4937704 0.04602185 
0.6170816 -0.4942917 0.04113695 
0.6121341 -0.4953766 0.03650641 
0.6072062 -0.4962915 0.0317964 
0.6022887 -0.4970519 0.02702158 
0.5973442 -0.4980819 0.02236508 
0.5923293 -0.5000786 0.01817296 
0.5872633 -0.5027653 0.014309 
0.5816366 -0.5131406 0.0141301 
0.5759183 -0.5250695 0.01471002 
0.5701594 -0.5380091 0.01580835 
0.5648421 -0.5450714 0.01410986 
0.5595518 -0.5520915 0.01240777 
0.5542549 -0.5593585 0.01084589 
0.5489588 -0.5668819 0.009425897 
0.5436952 -0.5741772 0.007913366 
0.5385427 -0.5799699 0.005685396 
0.5334364 -0.585265 0.00322143 
0.5283551 -0.5902821 0.0006385297 
0.5233337 -0.5945119 -0.002324186 
0.5183548 -0.598125 -0.005578246 
0.5134138 -0.6011969 -0.00909093 
0.5085235 -0.6034514 -0.01301238 
0.5036635 -0.6052475 -0.01715571 
0.498852 -0.6060796 -0.02177432 
0.4940624 -0.6065611 -0.02657973 
0.4892838 -0.6067737 -0.03151134 
0.484639 -0.6040651 -0.03792172 
1.05412 -0.1935515 0.3248151 
1.039154 -0.2464696 0.3385355 
1.02986 -0.2696783 0.3416576 
1.021802 -0.2865253 0.3425372 
1.014522 -0.2993074 0.3419856 
1.007745 -0.3095289 0.3405219 
1.000742 -0.3211451 0.3395993 
0.9939517 -0.3317235 0.3383144 
0.9873939 -0.3411501 0.3366437 
0.9805724 -0.3521481 0.3355736 
0.9739749 -0.3620148 0.3341079 
0.9677458 -0.3699493 0.3319427 
0.9617218 -0.3768083 0.3294002 
0.9557706 -0.3832953 0.3267242 
0.9499012 -0.3894221 0.3239381 
0.9441422 -0.394932 0.3209222 
0.9383292 -0.400879 0.3180925 
0.9324764 -0.4070744 0.3153708 
0.9266652 -0.4131635 0.3126145 
0.9209395 -0.4187869 0.3097009 
0.915297 -0.4239906 0.3066393 
0.9097312 -0.4287538 0.3034121 
0.904185 -0.4334915 0.300191 
0.8986551 -0.4381602 0.2969508 
0.8931432 -0.442799 0.293705 
0.8876674 -0.4472603 0.2904069 
0.8821914 -0.451756 0.2871245 
0.8767015 -0.4564347 0.2839327 
0.8712631 -0.4608169 0.2806206 
0.8659468 -0.4645066 0.2770513 
0.8605546 -0.4686587 0.2736729 
0.8552077 -0.4726074 0.2702254 
0.8499495 -0.4760284 0.2665691 
0.8449531 -0.4776685 0.2622017 
0.8400674 -0.4785807 0.2575365 
0.8353133 -0.4785045 0.2524724 
0.830451 -0.4792442 0.2477321 
0.825418 -0.481175 0.2434889 
0.8195058 -0.4894231 0.2418472 
0.8143983 -0.4919722 0.2378623 
0.8095673 -0.4925613 0.2330776 
0.8045594 -0.4944049 0.2288134 
0.7993727 -0.4976061 0.225122 
0.7940727 -0.5017101 0.2218014 
0.7888797 -0.5051169 0.2182072 
0.7837361 -0.5080931 0.2144325 
0.7787293 -0.5101424 0.2102756 
0.7737178 -0.5121542 0.206106 
0.7687313 -0.5140695 0.2019002 
0.7637854 -0.5156884 0.1975647 
0.7588397 -0.517228 0.1932006 
0.7539137 -0.5186925 0.1888079 
0.7490798 -0.5194196 0.1840914 
0.7442814 -0.519783 0.1792258 
0.7395256 -0.5197862 0.1741886 
0.7349295 -0.5184459 0.1685819 
0.7302904 -0.5173376 0.1630566 
0.7256486 -0.5163058 0.1575665 
0.7210505 -0.5147841 0.1518527 
0.7164297 -0.5133949 0.1461934 
0.7118369 -0.5117261 0.1403982 
0.7072778 -0.5096548 0.1344234 
0.7027245 -0.5074734 0.1283853 
0.6980736 -0.506109 0.1227085 
0.6934025 -0.5048952 0.1170839 
0.6887189 -0.5037196 0.1114796 
0.6840107 -0.5027758 0.1059659 
0.6793095 -0.5016246 0.1003539 
0.6746047 -0.5005361 0.09477133 
0.669867 -0.4996508 0.08926746 
0.6651584 -0.4985114 0.08364348 
0.6604114 -0.4976059 0.07812127 
0.6556264 -0.4971499 0.07279649 
0.6508154 -0.4968221 0.06753498 
0.6459485 -0.4971409 0.06256412 
0.6410719 -0.4975732 0.05764179 
0.6361859 -0.4980575 0.05274808 
0.6313087 -0.4984136 0.04778561 
0.6264106 -0.4990371 0.04294801 
0.6215 -0.4997025 0.03813135 
0.6165669 -0.5006887 0.03346503 
0.6116377 -0.5016514 0.02877912 
0.6067103 -0.5025548 0.02407702 
0.6018337 -0.5028284 0.01907429 
0.5968566 -0.5043315 0.01464603 
0.5918301 -0.5065317 0.01055571 
0.5862722 -0.5158277 0.009866122 
0.5805591 -0.5275967 0.01039464 
0.5747572 -0.5408523 0.01166376 
0.5693332 -0.5494102 0.01069432 
0.5639737 -0.5572357 0.009397417 
0.5586929 -0.5642263 0.007712644 
0.5534109 -0.5714155 0.006150089 
0.5482051 -0.5777497 0.004175104 
0.5430621 -0.5833556 0.001864638 
0.5379625 -0.5884617 -0.0006788261 
0.5329039 -0.5929902 -0.003494479 
0.5279068 -0.5968922 -0.006610326 
0.5229238 -0.6004611 -0.009880137 
0.5180191 -0.6029333 -0.01369456 
0.5131205 -0.6051927 -0.0176091 
0.5082629 -0.6069406 -0.02177585 
0.5034592 -0.6076791 -0.0264439 
0.4986393 -0.6086072 -0.03102093 
0.4938408 -0.6093073 -0.03571319 
0.4891886 -0.6068463 -0.04200727 
1.057042 -0.2067406 0.3239564 
1.043476 -0.2519279 0.3349645 
1.034431 -0.2736711 0.337593 
1.026507 -0.2896511 0.3381869 
1.019264 -0.3021992 0.3375548 
1.012259 -0.3136045 0.3365449 
1.005272 -0.3250661 0.3355836 
0.9985855 -0.3349994 0.3340808 
0.9921125 -0.3438543 0.3322094 
0.9855393 -0.3534157 0.3306139 
0.9789585 -0.3631286 0.3291095 
0.9725987 -0.3717346 0.3272067 
0.9665801 -0.3784797 0.3246245 
0.9606335 -0.3849293 0.3219453 
0.9547308 -0.3911783 0.3192096 
0.948984 -0.3965669 0.316155 
0.9432251 -0.4021574 0.3131903 
0.9374332 -0.4079863 0.3103347 
0.9315934 -0.4141639 0.3076178 
0.9258704 -0.4197204 0.3046857 
0.9202564 -0.4246862 0.3015317 
0.9147155 -0.4292663 0.298237 
0.9091863 -0.4338513 0.2949557 
0.9036679 -0.4384208 0.2916799 
0.8981158 -0.4432483 0.2885203 
0.8925754 -0.4480596 0.285354 
0.8870713 -0.4527163 0.282149 
0.8816165 -0.457139 0.2788532 
0.8762138 -0.4612263 0.275428 
0.8708456 -0.4652065 0.271975 
0.8655365 -0.4688013 0.2683771 
0.8602383 -0.4723534 0.2647691 
0.854895 -0.4762676 0.2613089 
0.849829 -0.4783859 0.2571342 
0.8448517 -0.4799173 0.252721 
0.8401396 -0.4795705 0.2475423 
0.8354003 -0.4794207 0.242444 
0.8306107 -0.4795979 0.2374725 
0.8250881 -0.4850104 0.2346637 
0.8196796 -0.4895867 0.2315175 
0.8143036 -0.494089 0.2283436 
0.8089746 -0.4982859 0.2250648 
0.8037268 -0.5019789 0.2215803 
0.7983472 -0.5066601 0.2185168 
0.7931152 -0.5103074 0.2150254 
0.7879577 -0.5134537 0.2113353 
0.7828903 -0.5159086 0.2073547 
0.777865 -0.5181427 0.2032821 
0.7728521 -0.5202851 0.1991761 
0.7678451 -0.5223781 0.1950518 
0.7629236 -0.5238217 0.1906522 
0.7580574 -0.5248149 0.1860612 
0.7532142 -0.5256119 0.1813923 
0.7484125 -0.5260692 0.1765601 
0.7436513 -0.5261921 0.1715907 
0.7390739 -0.5247155 0.1659215 
0.7344958 -0.5232493 0.1602439 
0.7298832 -0.5219541 0.1546403 
0.7252907 -0.5204774 0.1489428 
0.7207308 -0.5186472 0.1430888 
0.7161714 -0.5167344 0.1371931 
0.7115999 -0.5148328 0.1312914 
0.7070419 -0.5127657 0.1253071 
0.7023934 -0.5114134 0.1196273 
0.6977147 -0.5103711 0.1140823 
0.6930096 -0.5094768 0.1086102 
0.6882813 -0.5087537 0.1031971 
0.683589 -0.5076934 0.09763019 
0.6789073 -0.5063982 0.09195361 
0.674217 -0.5051697 0.08629227 
0.6695154 -0.5039815 0.08065023 
0.6648231 -0.5026441 0.07493204 
0.660058 -0.5019581 0.06951216 
0.6552489 -0.5017012 0.06427625 
0.6504141 -0.5017964 0.05920158 
0.6455379 -0.5021768 0.05426434 
0.6406608 -0.5026419 0.04935912 
0.6357734 -0.5031064 0.04445274 
0.6308699 -0.5038829 0.03968721 
0.6259402 -0.5048014 0.03499023 
0.6210318 -0.5055392 0.03021288 
0.616116 -0.5063683 0.02547216 
0.6111989 -0.5072332 0.02075069 
0.60629 -0.5079245 0.0159488 
0.6013983 -0.5084266 0.01104509 
0.5964001 -0.5102622 0.006789178 
0.5910196 -0.5170971 0.00493218 
0.585219 -0.5297212 0.005882863 
0.5793959 -0.5432348 0.007297501 
0.5738655 -0.5529888 0.006925561 
0.5684316 -0.5617678 0.006104141 
0.5631556 -0.5686088 0.004359283 
0.5579112 -0.5752161 0.002518706 
0.5527639 -0.5806596 0.0001201257 
0.5476308 -0.5859692 -0.00233195 
0.5425683 -0.5904168 -0.005193491 
0.537547 -0.5944188 -0.008261383 
0.5325672 -0.5977311 -0.01167015 
0.5276083 -0.6009329 -0.01512351 
0.522658 -0.6039892 -0.01864156 
0.517738 -0.6066841 -0.02233525 
0.5128476 -0.6089345 -0.0262471 
0.508012 -0.6101719 -0.03067236 
0.5031928 -0.6111694 -0.03521285 
0.4983868 -0.6119699 -0.03985314 
0.493744 -0.6094352 -0.04618502 
1.060329 -0.217867 0.3223734 
1.048009 -0.2562318 0.330985 
1.038983 -0.2777513 0.3335676 
1.031363 -0.2920259 0.3335549 
1.024033 -0.3049321 0.3330828 
1.01694 -0.3167371 0.3322301 
1.009973 -0.3279767 0.3312005 
1.00322 -0.3382376 0.3298407 
0.9968221 -0.3466561 0.3278141 
0.990323 -0.3557232 0.3260461 
0.9838746 -0.3646224 0.3242444 
0.9775245 -0.3731137 0.3223061 
0.9716297 -0.3791153 0.3194528 
0.96567 -0.385539 0.3167703 
0.9596748 -0.3923025 0.3142343 
0.9539272 -0.3976597 0.3111749 
0.9481926 -0.4030299 0.3081349 
0.9424653 -0.408438 0.3051217 
0.9366304 -0.4145287 0.3023781 
0.9309036 -0.4200436 0.2994301 
0.9252938 -0.4249659 0.2962608 
0.9197345 -0.4296113 0.2930022 
0.9141909 -0.4342085 0.2897252 
0.9086712 -0.4387605 0.2864487 
0.9031254 -0.4434926 0.2832484 
0.8976189 -0.4480625 0.2799943 
0.8921497 -0.4524287 0.2766668 
0.8866951 -0.4567662 0.2733401 
0.8812435 -0.4611719 0.2700482 
0.8758224 -0.4654217 0.2667013 
0.8705051 -0.4690362 0.2631154 
0.8652077 -0.4725474 0.2594857 
0.859929 -0.4759992 0.2558473 
0.8547868 -0.4786127 0.2518688 
0.8497396 -0.4805439 0.2476199 
0.8449878 -0.4804834 0.2425551 
0.8401996 -0.4806887 0.237597 
0.8353903 -0.4810144 0.2326802 
0.829946 -0.4857719 0.2296 
0.8244601 -0.4909233 0.2266962 
0.8188589 -0.4969348 0.2241682 
0.813413 -0.5019779 0.2212434 
0.8079334 -0.5073003 0.2184461 
0.802592 -0.5117511 0.2152939 
0.79735 -0.5154597 0.2118368 
0.792169 -0.5187745 0.2082303 
0.787079 -0.5214366 0.2043407 
0.7820031 -0.5240708 0.200442 
0.7769417 -0.526603 0.1965182 
0.7719357 -0.5287226 0.1924089 
0.7670169 -0.5301799 0.1880198 
0.7621608 -0.5311509 0.1834249 
0.7573338 -0.5318658 0.1787214 
0.7525375 -0.5323561 0.1739129 
0.7477612 -0.5326295 0.1690149 
0.7431523 -0.5314988 0.1634983 
0.7385958 -0.5299136 0.1577726 
0.7340448 -0.5282134 0.1519928 
0.7295231 -0.5261835 0.1460547 
0.7249544 -0.5244519 0.1402421 
0.7204465 -0.5221703 0.1341791 
0.7159132 -0.5200478 0.1281797 
0.711325 -0.5183003 0.1223385 
0.7067034 -0.5168004 0.1166002 
0.7020488 -0.5155852 0.1109811 
0.6973611 -0.5146071 0.1054589 
0.6926056 -0.5141866 0.1001859 
0.6878862 -0.5133981 0.09475109 
0.6831959 -0.51232 0.08916426 
0.6785195 -0.5110353 0.08348759 
0.6738533 -0.5095521 0.0777104 
0.669193 -0.5079507 0.07187926 
0.6644592 -0.5070299 0.06633931 
0.6597028 -0.5063256 0.06090768 
0.6548846 -0.5062158 0.05573537 
0.6500068 -0.5066769 0.05083902 
0.6451254 -0.5072199 0.04596642 
0.6402344 -0.5078278 0.04113033 
0.6353313 -0.5085582 0.03635405 
0.6304198 -0.5093936 0.03162239 
0.6254805 -0.5104944 0.02701981 
0.62056 -0.5114294 0.02232894 
0.6156468 -0.5122364 0.01758109 
0.6107629 -0.5127137 0.01268496 
0.6058625 -0.5133453 0.007850766 
0.6009587 -0.5140386 0.003044792 
0.5956524 -0.5198429 0.0007080436 
0.5901152 -0.5289141 -4.045665e-05 
0.5840576 -0.5451888 0.002723917 
0.5784103 -0.5563989 0.003072642 
0.5729526 -0.5653843 0.002364822 
0.5676811 -0.5720776 0.0005620122 
0.5624642 -0.5781413 -0.001537524 
0.5573216 -0.5833947 -0.004015505 
0.5522504 -0.5878243 -0.006894462 
0.5472226 -0.5916831 -0.01004249 
0.5422122 -0.5953704 -0.01326799 
0.5371965 -0.5992069 -0.01641367 
0.5322065 -0.6027874 -0.01967337 
0.5272282 -0.6063218 -0.02295712 
0.5222744 -0.6094849 -0.02641427 
0.5173506 -0.6123204 -0.03002902 
0.5125129 -0.6137669 -0.03433853 
0.5076953 -0.6146405 -0.03894023 
0.502915 -0.6150184 -0.04378993 
0.4982715 -0.6126448 -0.05005192 
1.064341 -0.2250821 0.319404 
1.052378 -0.2613813 0.3273195 
1.043673 -0.2810251 0.3292517 
1.036174 -0.2946134 0.3290063 
1.028704 -0.3081843 0.3287949 
1.021599 -0.3199489 0.3279443 
1.014664 -0.3309847 0.326858 
1.007947 -0.3409476 0.3253953 
1.001588 -0.3490814 0.3232767 
0.9951748 -0.3576403 0.3213298 
0.9887943 -0.3661207 0.3193872 
0.9824727 -0.3743719 0.3173664 
0.9767111 -0.3795947 0.3142253 
0.9708095 -0.3856418 0.311399 
0.964742 -0.3926935 0.3089793 
0.958953 -0.3982719 0.3060125 
0.9531593 -0.403953 0.3030928 
0.9473812 -0.4096059 0.3001722 
0.9416643 -0.4149672 0.2971592 
0.9359976 -0.4200761 0.2940579 
0.9303586 -0.4250996 0.2909313 
0.9247975 -0.4297119 0.2876549 
0.9192423 -0.4343633 0.2844026 
0.9136859 -0.439059 0.2811852 
0.9081751 -0.4435409 0.2778838 
0.9026775 -0.4479957 0.2745937 
0.8972016 -0.4523741 0.2712752 
0.8917441 -0.4566979 0.2679382 
0.8863213 -0.4608507 0.2645491 
0.880928 -0.4648623 0.2611092 
0.8755835 -0.4685887 0.2575641 
0.8703018 -0.4719937 0.2538973 
0.8650824 -0.4750082 0.2500771 
0.859856 -0.4780847 0.246289 
0.8547522 -0.4803851 0.2421806 
0.8499045 -0.480979 0.2373826 
0.844965 -0.4822028 0.2328412 
0.8401097 -0.4828179 0.228045 
0.8345212 -0.4885913 0.2253972 
0.828869 -0.4948606 0.2229697 
0.823173 -0.5015131 0.2207136 
0.8176204 -0.5072938 0.2181072 
0.8121663 -0.5124335 0.2152448 
0.8068779 -0.5164524 0.2119175 
0.8016282 -0.5202272 0.2084954 
0.7964117 -0.5238334 0.2050129 
0.7912491 -0.5270498 0.2013758 
0.7861683 -0.5297225 0.1975018 
0.781123 -0.5321322 0.1935221 
0.7760978 -0.5344409 0.18951 
0.7711589 -0.5361164 0.1852234 
0.7662549 -0.5374658 0.1807946 
0.7614293 -0.5382087 0.1761061 
0.7566313 -0.5387571 0.1713352 
0.7518579 -0.5391306 0.166479 
0.7472273 -0.5381911 0.1610489 
0.7426503 -0.5368273 0.1554257 
0.7381231 -0.5350735 0.1496203 
0.7336374 -0.5327385 0.1435556 
0.7291512 -0.5304576 0.1375026 
0.7246516 -0.5281575 0.1314266 
0.7201306 -0.52596 0.1253935 
0.7155927 -0.523863 0.1193926 
0.7109462 -0.5226671 0.1137907 
0.7063096 -0.5213567 0.1081326 
0.70166 -0.5201446 0.1025088 
0.6969339 -0.5194667 0.09712458 
0.6922184 -0.5187635 0.09172608 
0.6875174 -0.5178564 0.08622468 
0.6828381 -0.5166196 0.08057038 
0.6781802 -0.515118 0.07478021 
0.6735442 -0.5133413 0.06886297 
0.6688359 -0.5122887 0.06326972 
0.6640881 -0.5115851 0.05783772 
0.6593179 -0.511013 0.0524589 
0.6544392 -0.5115305 0.04758847 
0.6495341 -0.5123237 0.04284127 
0.6446438 -0.5129533 0.03801719 
0.6397467 -0.5137196 0.03325338 
0.6348348 -0.5145594 0.02853421 
0.629918 -0.5154969 0.02385078 
0.6250076 -0.5163198 0.01911337 
0.6201048 -0.5170505 0.01433824 
0.6152121 -0.517707 0.009524465 
0.6103524 -0.5179346 0.004503772 
0.6054696 -0.5183262 -0.0004461557 
0.6002616 -0.5229054 -0.00336998 
0.5948254 -0.5305223 -0.004808463 
0.5888076 -0.545934 -0.002438866 
0.5830631 -0.5582988 -0.001513623 
0.5775182 -0.5682936 -0.001707755 
0.572261 -0.5746869 -0.003659844 
0.5670757 -0.5802872 -0.005971558 
0.5619804 -0.5847076 -0.008858189 
0.5569443 -0.5885072 -0.01204474 
0.5519585 -0.5917096 -0.01551468 
0.5469112 -0.5958128 -0.01853443 
0.541804 -0.600967 -0.02101454 
0.5367426 -0.6056714 -0.02371044 
0.5317115 -0.6099237 -0.02662537 
0.5267646 -0.6130444 -0.03009745 
0.521844 -0.6158177 -0.03374086 
0.5169961 -0.6174067 -0.03797618 
0.5121977 -0.6180712 -0.04268815 
0.5074402 -0.6180546 -0.04773787 
0.5028484 -0.6148525 -0.05442415 
1.068397 -0.232007 0.3163348 
1.056852 -0.2659178 0.3234413 
1.048416 -0.2840623 0.3248497 
1.041042 -0.29685 0.3243313 
1.03355 -0.310471 0.3241544 
1.026471 -0.3220454 0.3232481 
1.019427 -0.3335643 0.3223588 
1.012725 -0.3434101 0.3208659 
1.006341 -0.3516111 0.318778 
1.000035 -0.3595499 0.3166158 
0.9936915 -0.3677551 0.314573 
0.9873665 -0.3759367 0.3125397 
0.9816534 -0.380854 0.3092798 
0.9758788 -0.3861277 0.3061738 
0.9699717 -0.3922508 0.3034034 
0.9640625 -0.3984707 0.3006817 
0.9582186 -0.4043626 0.2978501 
0.9524344 -0.4099785 0.2949182 
0.9467104 -0.4153448 0.2919115 
0.9410452 -0.4204121 0.2887898 
0.935437 -0.425204 0.2855786 
0.9298977 -0.4296595 0.2822464 
0.9243535 -0.4341558 0.278939 
0.9188003 -0.4387824 0.2756889 
0.91331 -0.4431162 0.2723333 
0.9078285 -0.4473763 0.2689623 
0.9023876 -0.4515046 0.2655426 
0.8969964 -0.4553517 0.2620207 
0.891567 -0.4594682 0.2586186 
0.8860936 -0.4639384 0.2553621 
0.8807159 -0.4678794 0.2519017 
0.8754718 -0.4709659 0.2481011 
0.8703235 -0.4734666 0.2440718 
0.8651463 -0.4761834 0.2401312 
0.8599667 -0.4789177 0.2362076 
0.8549353 -0.4807251 0.2319021 
0.8498713 -0.482776 0.2276967 
0.84472 -0.4854181 0.2237452 
0.838985 -0.49213 0.2214907 
0.8331196 -0.4998215 0.219664 
0.8273773 -0.5068165 0.2175683 
0.8218462 -0.5124344 0.214902 
0.8164667 -0.5170327 0.2118198 
0.8111749 -0.5210412 0.2084955 
0.8058779 -0.5251507 0.2052286 
0.8005985 -0.529218 0.201947 
0.7954466 -0.5323986 0.1983034 
0.790378 -0.5349795 0.1943964 
0.785355 -0.5372742 0.1903801 
0.780388 -0.539106 0.1861656 
0.7754244 -0.5409682 0.1819587 
0.7704552 -0.5428613 0.177773 
0.7655593 -0.5442312 0.1733623 
0.7607405 -0.5449584 0.1686741 
0.7559793 -0.5452803 0.1638044 
0.7513402 -0.5444859 0.158439 
0.7467766 -0.5431436 0.1528283 
0.7422495 -0.5413485 0.147004 
0.737729 -0.5395052 0.1411599 
0.7332682 -0.5370321 0.135015 
0.7288128 -0.5344568 0.1288218 
0.7243099 -0.5321772 0.1227549 
0.7197845 -0.5300953 0.1167625 
0.7151904 -0.5285216 0.1109905 
0.7105414 -0.5273408 0.1053957 
0.7058828 -0.5262592 0.09983075 
0.7011826 -0.5254508 0.09439348 
0.6965166 -0.5243586 0.08881269 
0.691834 -0.5232595 0.08322576 
0.6871676 -0.522051 0.07758637 
0.6825111 -0.5206237 0.07183518 
0.6778902 -0.518814 0.06590423 
0.6732031 -0.5175201 0.06020087 
0.6684713 -0.5166739 0.05470041 
0.6636912 -0.5162815 0.04940311 
0.6588341 -0.5166812 0.04448543 
0.6539482 -0.5173232 0.03967096 
0.6490456 -0.5181783 0.03495691 
0.6441455 -0.5189214 0.03019169 
0.6392574 -0.5196187 0.0254036 
0.63437 -0.5202065 0.02055772 
0.6294285 -0.5214456 0.01602253 
0.6244932 -0.5226756 0.01149014 
0.6196297 -0.5229646 0.006496683 
0.614804 -0.522869 0.001324326 
0.6099745 -0.5226916 -0.003892213 
0.6049361 -0.525127 -0.007853009 
0.5995303 -0.5322468 -0.009521715 
0.593591 -0.5464268 -0.007728398 
0.5878034 -0.5589833 -0.006693602 
0.5821726 -0.5699907 -0.006384648 
0.5769186 -0.5762759 -0.008374661 
0.5717682 -0.5813228 -0.01095507 
0.566712 -0.5851494 -0.01413659 
0.5617057 -0.5883898 -0.0175987 
0.5566517 -0.5923856 -0.02066757 
0.5515206 -0.5977136 -0.02307462 
0.5463928 -0.6030909 -0.02543959 
0.5412866 -0.6084185 -0.02781805 
0.5362558 -0.6126345 -0.0307412 
0.5313159 -0.6156197 -0.03428424 
0.5264049 -0.6181717 -0.03803014 
0.5215553 -0.6197749 -0.04226223 
0.5167551 -0.6204849 -0.04694029 
0.5120095 -0.6202662 -0.05210095 
0.5074907 -0.6158161 -0.05942734 
1.072834 -0.2369301 0.3125559 
1.061721 -0.2683911 0.3188062 
1.053159 -0.2870973 0.3204473 
1.045883 -0.2992991 0.319732 
1.038539 -0.3120332 0.319238 
1.031424 -0.323712 0.3183929 
1.02439 -0.335107 0.3174655 
1.017602 -0.3453169 0.3161217 
1.011172 -0.3537277 0.3141284 
1.004821 -0.3618292 0.3120371 
0.9985241 -0.3697383 0.3098933 
0.9922118 -0.3777905 0.307818 
0.9865391 -0.3824456 0.304468 
0.9808988 -0.386946 0.3010634 
0.9752751 -0.3914308 0.2976682 
0.9692553 -0.3981739 0.2951534 
0.9633865 -0.4041732 0.2923619 
0.9576616 -0.4094371 0.2893007 
0.9518968 -0.4149481 0.2863486 
0.9462071 -0.4201099 0.2832724 
0.9405922 -0.4248787 0.2800539 
0.9350257 -0.4294093 0.2767541 
0.9294995 -0.433815 0.2734075 
0.9240039 -0.4380224 0.2699947 
0.9184985 -0.4423833 0.2666486 
0.9130542 -0.4464205 0.2631912 
0.9076891 -0.45 0.2595487 
0.9023413 -0.4535205 0.2558958 
0.8970043 -0.4570124 0.2522394 
0.8916314 -0.4607527 0.2486832 
0.8861134 -0.4654752 0.245541 
0.8806599 -0.469849 0.242268 
0.8755141 -0.4722885 0.2382093 
0.8705219 -0.4737867 0.2337632 
0.8654333 -0.475893 0.2295727 
0.8601608 -0.4792659 0.2259104 
0.85483 -0.4830093 0.2224118 
0.8492474 -0.4885376 0.2196589 
0.8432912 -0.4966985 0.2180203 
0.8373557 -0.5048548 0.2164035 
0.8316283 -0.5117432 0.2142687 
0.8261492 -0.516899 0.2114235 
0.8208142 -0.5211762 0.2082133 
0.8154872 -0.5254728 0.205022 
0.8101348 -0.5299793 0.201935 
0.8048243 -0.5342804 0.1987604 
0.799628 -0.5377751 0.1952532 
0.7945633 -0.5403336 0.1913496 
0.7895595 -0.5424771 0.1872661 
0.7845821 -0.5444301 0.1831137 
0.7796295 -0.5462413 0.1788926 
0.7746974 -0.5478725 0.1745999 
0.769737 -0.549751 0.1704148 
0.7648686 -0.5509109 0.1659176 
0.7600853 -0.5514676 0.1611541 
0.7554199 -0.5509834 0.1559306 
0.7508554 -0.5496477 0.1503212 
0.7463712 -0.5476522 0.1444178 
0.7418851 -0.5455621 0.1384622 
0.7373924 -0.5434832 0.1324942 
0.732949 -0.5408528 0.1262767 
0.728476 -0.5384725 0.1201643 
0.7239454 -0.5364738 0.1142101 
0.7193781 -0.5347004 0.1083535 
0.7147472 -0.5334671 0.1027271 
0.7100881 -0.5324385 0.09719843 
0.7054454 -0.5311999 0.0915591 
0.7007672 -0.5302374 0.08604316 
0.6961187 -0.5289384 0.08036648 
0.6914834 -0.527463 0.07460219 
0.6868259 -0.5261536 0.06890978 
0.6821929 -0.5245174 0.06305388 
0.6775404 -0.5230524 0.05727633 
0.6728266 -0.5220282 0.05169408 
0.668061 -0.5215786 0.04638138 
0.6631953 -0.5220829 0.04150717 
0.6583112 -0.5227935 0.03672835 
0.6534242 -0.5234821 0.03193701 
0.6485338 -0.524197 0.02716757 
0.6436454 -0.5248942 0.02237833 
0.6387647 -0.5255501 0.0175748 
0.6338564 -0.5264325 0.012871 
0.6289319 -0.5275024 0.008269176 
0.624099 -0.5275798 0.00317651 
0.6192857 -0.5273144 -0.002079047 
0.6144668 -0.5271331 -0.007299878 
0.6095034 -0.5286888 -0.01167385 
0.6042439 -0.5338275 -0.01429894 
0.5984707 -0.5456613 -0.01363772 
0.5925564 -0.5597055 -0.01186515 
0.5868838 -0.5709647 -0.01141418 
0.5816121 -0.5774176 -0.01331512 
0.5764452 -0.5825428 -0.01584908 
0.5713893 -0.5862879 -0.0190711 
0.5663571 -0.5898301 -0.02237359 
0.5612469 -0.5945767 -0.02507341 
0.5560781 -0.6003217 -0.02726095 
0.5509224 -0.6060914 -0.02942224 
0.5458721 -0.6105602 -0.03222556 
0.540861 -0.6144051 -0.03532682 
0.5359461 -0.616941 -0.03909618 
0.5310418 -0.6192079 -0.04298974 
0.5262026 -0.6206278 -0.04731531 
0.5214071 -0.6213048 -0.05201569 
0.5166606 -0.6210604 -0.05719304 
0.5121861 -0.6159022 -0.06489895 
1.077627 -0.2400094 0.3081011 
1.066416 -0.2717414 0.3145011 
1.058072 -0.2892247 0.3157145 
1.05062 -0.3022649 0.3153219 
1.043552 -0.3134545 0.3142764 
1.036458 -0.3249326 0.3133636 
1.029461 -0.33607 0.3123543 
1.022586 -0.3466703 0.3111773 
1.016088 -0.355379 0.3092969 
1.009729 -0.3634624 0.3072111 
1.003438 -0.3712836 0.305041 
0.9971883 -0.3789577 0.3028275 
0.9914613 -0.3838591 0.2995801 
0.985837 -0.3882808 0.296152 
0.9803088 -0.39215 0.2925214 
0.9744309 -0.3980581 0.2896853 
0.9686081 -0.4037183 0.2867705 
0.962826 -0.4092371 0.283814 
0.9571145 -0.4143994 0.2807288 
0.9514047 -0.4196279 0.2776779 
0.9457031 -0.424871 0.2746442 
0.940133 -0.4293911 0.2713442 
0.9346074 -0.4337048 0.2679662 
0.9291025 -0.4379406 0.2645585 
0.9236659 -0.4418477 0.2610419 
0.9182658 -0.445521 0.2574356 
0.9128913 -0.4491265 0.2538072 
0.9075785 -0.4523637 0.250035 
0.9023151 -0.4553989 0.2461892 
0.8970736 -0.4582645 0.2422816 
0.8918813 -0.4608604 0.2382638 
0.8864062 -0.4653045 0.2350151 
0.8809071 -0.4699265 0.2318434 
0.8757969 -0.4721233 0.2276843 
0.870778 -0.4737266 0.2232783 
0.8652144 -0.4789224 0.2203742 
0.8596427 -0.4842645 0.2175383 
0.8536568 -0.4924788 0.2159205 
0.8476355 -0.5010296 0.2144595 
0.8416829 -0.5092626 0.2128877 
0.8359577 -0.5160139 0.2107086 
0.8305573 -0.5206855 0.2076645 
0.8251387 -0.5255196 0.204697 
0.8197984 -0.5298324 0.2015229 
0.8144296 -0.5344685 0.1984938 
0.8091151 -0.5387871 0.1953364 
0.8038396 -0.5428604 0.1920866 
0.7987607 -0.5455461 0.1882453 
0.7937469 -0.5477638 0.1842001 
0.7887449 -0.5499381 0.1801447 
0.7837694 -0.5519254 0.1760108 
0.7787987 -0.5539052 0.1718785 
0.77388 -0.5555567 0.1675996 
0.7690059 -0.556764 0.1631304 
0.7641871 -0.5575728 0.1584823 
0.7595268 -0.5571665 0.1532907 
0.7549418 -0.5560499 0.1477852 
0.7504556 -0.5541527 0.1419274 
0.7460053 -0.5518425 0.1358747 
0.741534 -0.5496042 0.1298378 
0.7371018 -0.547052 0.1236584 
0.73265 -0.5445158 0.1174678 
0.7281629 -0.5422071 0.111377 
0.7235837 -0.5406761 0.1056311 
0.7189697 -0.5393955 0.09998767 
0.7143176 -0.5383476 0.09444652 
0.7096534 -0.5373548 0.08892978 
0.7050253 -0.535987 0.0832275 
0.7003884 -0.5347167 0.07756558 
0.6957721 -0.5331042 0.07174081 
0.6911438 -0.5315491 0.06593023 
0.6865097 -0.5300781 0.06015626 
0.6818563 -0.5285794 0.05436198 
0.6771694 -0.5274395 0.04872496 
0.6724107 -0.5269778 0.04340283 
0.6675726 -0.5272818 0.03844356 
0.6626962 -0.5278598 0.03360569 
0.6578151 -0.5286256 0.02885941 
0.6529396 -0.529196 0.02401935 
0.6480637 -0.5298395 0.01920578 
0.6431545 -0.5308077 0.01455545 
0.6382728 -0.531469 0.009754255 
0.6333891 -0.5321727 0.004973345 
0.6285654 -0.5321056 -0.0001830757 
0.6237667 -0.5317369 -0.00548657 
0.6189797 -0.5312892 -0.01083218 
0.6141007 -0.5317685 -0.01573371 
0.6089042 -0.5361064 -0.01874313 
0.603397 -0.5445262 -0.01974354 
0.5974652 -0.558499 -0.01797977 
0.5916907 -0.5708803 -0.01697396 
0.5862783 -0.578948 -0.01806314 
0.5811081 -0.5840618 -0.02060854 
0.5760072 -0.5883157 -0.02355991 
0.5709069 -0.5927732 -0.02641192 
0.5657841 -0.597653 -0.02903545 
0.5606267 -0.6031886 -0.03131484 
0.5555401 -0.6078945 -0.03400362 
0.5505013 -0.6119673 -0.03700598 
0.5455235 -0.6152282 -0.0404044 
0.5406306 -0.617342 -0.04438759 
0.5357609 -0.6191664 -0.04850267 
0.5309296 -0.6203281 -0.05296218 
0.5261248 -0.6209979 -0.05766615 
0.5213419 -0.6213592 -0.06253864 
0.5169438 -0.6150395 -0.07085744 
1.082571 -0.2423051 0.3033587 
1.071339 -0.2739568 0.3097756 
1.06317 -0.2904163 0.3106337 
1.055671 -0.3036097 0.3103148 
1.048702 -0.3141861 0.3090513 
1.041628 -0.3254973 0.3080953 
1.034581 -0.3367986 0.3071519 
1.027681 -0.3474509 0.305999 
1.021097 -0.3565503 0.3042842 
1.014709 -0.3647195 0.3022371 
1.008442 -0.3723416 0.3000003 
1.002247 -0.3796962 0.2976821 
0.996342 -0.3855234 0.2947887 
0.9906262 -0.390375 0.2915294 
0.9850875 -0.3943216 0.2879269 
0.9793813 -0.3992159 0.28471 
0.9736882 -0.4041305 0.2815071 
0.9679073 -0.4095566 0.2785172 
0.9622039 -0.4146612 0.2754107 
0.9564908 -0.4198343 0.2723398 
0.9507769 -0.425085 0.2693198 
0.945262 -0.4292541 0.2658761 
0.9398479 -0.4328758 0.2622288 
0.9345067 -0.4360843 0.2584122 
0.92915 -0.4394429 0.2546678 
0.9237074 -0.443345 0.2511549 
0.9182136 -0.4476174 0.2477891 
0.9127646 -0.4516553 0.2443485 
0.9074849 -0.4546896 0.2404969 
0.9022683 -0.4573756 0.2365124 
0.8971584 -0.4594127 0.2322632 
0.892064 -0.4613755 0.2279929 
0.8867784 -0.4646075 0.2242456 
0.8812531 -0.4693786 0.2211442 
0.8760436 -0.4721282 0.2172117 
0.8702427 -0.4788551 0.214941 
0.8643283 -0.48639 0.2130316 
0.8581511 -0.4957965 0.2119221 
0.8520038 -0.5051354 0.2108106 
0.846005 -0.5136352 0.2093578 
0.8403069 -0.5201822 0.2071055 
0.8347895 -0.5256227 0.2043978 
0.8293733 -0.5304394 0.2014352 
0.8240193 -0.5348881 0.1983264 
0.8186333 -0.5395689 0.1953253 
0.8133265 -0.5438272 0.1921591 
0.8080914 -0.5476053 0.1887773 
0.8030018 -0.5503789 0.1849803 
0.7979422 -0.5529655 0.1811096 
0.7929009 -0.5554619 0.1771991 
0.7878975 -0.5576802 0.1731773 
0.7829233 -0.5596886 0.1690551 
0.7780595 -0.5609035 0.1645889 
0.7731982 -0.5620905 0.1601128 
0.7683741 -0.5629873 0.1555133 
0.7637401 -0.5624152 0.1502551 
0.7591276 -0.561589 0.1448772 
0.7545918 -0.560075 0.1391889 
0.7501665 -0.5577001 0.1331056 
0.7457171 -0.5553939 0.1270438 
0.7412777 -0.5529236 0.1208994 
0.7368396 -0.5504162 0.1147244 
0.732361 -0.548081 0.1086194 
0.7278252 -0.5462376 0.102725 
0.7232276 -0.5448358 0.09703791 
0.7186011 -0.5436882 0.09144865 
0.7139316 -0.5427975 0.08598016 
0.7092837 -0.5416576 0.08038289 
0.704662 -0.5402784 0.07466979 
0.7000457 -0.5387476 0.0688851 
0.6954479 -0.5370437 0.06300926 
0.6908242 -0.5354905 0.05719362 
0.6861808 -0.5340822 0.05144361 
0.6814986 -0.5329134 0.04579688 
0.6767582 -0.5323164 0.04041377 
0.6719521 -0.532264 0.03528545 
0.6671191 -0.5325711 0.03032137 
0.6622375 -0.5333047 0.02556871 
0.6573414 -0.5341781 0.02087279 
0.6524591 -0.5349503 0.01612819 
0.647576 -0.535652 0.01134652 
0.642702 -0.5362447 0.006520614 
0.6378482 -0.5366678 0.001604028 
0.6330538 -0.5363397 -0.003674857 
0.628262 -0.5359707 -0.008974232 
0.6234787 -0.5354981 -0.01433969 
0.6186473 -0.5353965 -0.01951974 
0.6136358 -0.5375671 -0.02358702 
0.6083885 -0.5426154 -0.02623112 
0.6024199 -0.5567648 -0.02436931 
0.5965716 -0.5697874 -0.02303433 
0.5910007 -0.5796971 -0.02320695 
0.5857537 -0.5856977 -0.02529975 
0.5805916 -0.5908182 -0.02782032 
0.5754614 -0.5955563 -0.03052323 
0.5703396 -0.6003575 -0.03317673 
0.5652242 -0.6052537 -0.03577328 
0.5601739 -0.6093457 -0.03876778 
0.5551639 -0.6129059 -0.04202249 
0.550235 -0.6154202 -0.04580506 
0.5453618 -0.6170892 -0.05000505 
0.5405052 -0.618591 -0.05429575 
0.5356712 -0.6197803 -0.05874372 
0.5308654 -0.6205359 -0.06341609 
0.5260834 -0.6207725 -0.06835022 
0.5216915 -0.6144536 -0.07668717 
1.088129 -0.2415754 0.2974943 
1.076599 -0.2744891 0.3044254 
1.068309 -0.2914011 0.305465 
1.060771 -0.304719 0.3052153 
1.053824 -0.3151365 0.3039055 
1.046777 -0.3262055 0.3028669 
1.039725 -0.3374291 0.3019135 
1.03282 -0.3480261 0.3007525 
1.026258 -0.3569642 0.2989796 
1.019816 -0.3653359 0.2970233 
1.013497 -0.3732086 0.2948823 
1.007325 -0.3803219 0.2924772 
1.001385 -0.3862851 0.2896409 
0.9956259 -0.3913721 0.2864775 
0.9899839 -0.3958359 0.2830867 
0.9843259 -0.4004589 0.2797602 
0.9786643 -0.4051424 0.2764734 
0.9729697 -0.4100311 0.273276 
0.9672364 -0.4152304 0.270211 
0.9615035 -0.420462 0.2671727 
0.9558042 -0.4256142 0.2641165 
0.9503132 -0.4296029 0.260596 
0.9449153 -0.4330715 0.2568881 
0.9396041 -0.4360918 0.2529967 
0.9343453 -0.4388255 0.2490022 
0.929141 -0.4412801 0.2449001 
0.9238825 -0.4440815 0.2409422 
0.9184039 -0.4482036 0.2375266 
0.9127411 -0.4535496 0.2346186 
0.9073961 -0.4569784 0.2309329 
0.9023247 -0.4587284 0.2265682 
0.8972452 -0.4605905 0.2222496 
0.8922082 -0.4621658 0.2178207 
0.8868679 -0.4656781 0.214194 
0.8811849 -0.4714364 0.2115089 
0.8748999 -0.4812328 0.2105314 
0.8686726 -0.4907281 0.2094503 
0.8624115 -0.500619 0.2085558 
0.8562136 -0.5102396 0.2075812 
0.8502183 -0.518679 0.2061246 
0.8444749 -0.5255466 0.2040219 
0.8390036 -0.5306102 0.2011609 
0.8335578 -0.5356391 0.1982973 
0.8282027 -0.5401049 0.195208 
0.8228831 -0.544341 0.1920271 
0.8176546 -0.5479916 0.1886006 
0.8124564 -0.5515018 0.1851216 
0.8073132 -0.5546559 0.1814857 
0.8022261 -0.5574394 0.1777077 
0.7971589 -0.5601254 0.1738898 
0.7921478 -0.5624349 0.1699067 
0.7871717 -0.5644609 0.1658028 
0.7822686 -0.5660323 0.1615002 
0.7774367 -0.5669714 0.156916 
0.7726535 -0.5676051 0.1522043 
0.7680236 -0.5670155 0.1469289 
0.7634529 -0.5659554 0.1414552 
0.7589076 -0.564594 0.1358307 
0.754457 -0.5624114 0.1298305 
0.7500027 -0.560203 0.1238148 
0.7455514 -0.5579406 0.117762 
0.7410898 -0.5556339 0.1116774 
0.7366246 -0.5533189 0.1055844 
0.7321041 -0.5513656 0.09963925 
0.7275068 -0.5500435 0.09397982 
0.7228799 -0.5489334 0.08842114 
0.7182249 -0.5480342 0.0829387 
0.7135804 -0.5469746 0.07738723 
0.7089496 -0.5456963 0.07172753 
0.7043335 -0.5442793 0.06598973 
0.699735 -0.5425821 0.06011648 
0.69514 -0.5408183 0.05420169 
0.6904941 -0.5395127 0.04849981 
0.6858137 -0.5384481 0.04290685 
0.6810999 -0.537611 0.03740946 
0.6763117 -0.5375261 0.03226733 
0.6714853 -0.5377344 0.02726292 
0.6666179 -0.5383656 0.02246223 
0.661716 -0.5393195 0.01781058 
0.656828 -0.540171 0.01311276 
0.6519867 -0.5404847 0.008145101 
0.6471547 -0.5407156 0.003142379 
0.642326 -0.5408714 -0.001893774 
0.6375358 -0.5406005 -0.007151566 
0.632756 -0.5401314 -0.01249989 
0.6279813 -0.5395186 -0.01792693 
0.6232549 -0.5384046 -0.02360354 
0.6183107 -0.5397367 -0.02808331 
0.6132593 -0.5423819 -0.03191493 
0.6074079 -0.5547677 -0.03090635 
0.6015484 -0.5677488 -0.0295807 
0.5958555 -0.5789868 -0.02907868 
0.5904531 -0.586759 -0.0302866 
0.5851859 -0.5931367 -0.03217458 
0.5800744 -0.5975828 -0.03500695 
0.5749855 -0.6018815 -0.03791503 
0.5699167 -0.606015 -0.04089481 
0.5648909 -0.609616 -0.04413586 
0.5599473 -0.6122473 -0.04786351 
0.5550345 -0.6143857 -0.05183208 
0.5501609 -0.6160778 -0.05602943 
0.5452993 -0.617512 -0.06036066 
0.5404273 -0.6191937 -0.06455002 
0.5356247 -0.6198161 -0.06930073 
0.5308732 -0.6194862 -0.07453544 
0.5267167 -0.6094182 -0.08482789 
1.093971 -0.2394524 0.2911054 
1.082192 -0.273352 0.2984478 
1.073619 -0.2915661 0.2999924 
1.065883 -0.3057808 0.3000931 
1.058961 -0.3159781 0.2987099 
1.051914 -0.3269583 0.2976499 
1.044792 -0.3384821 0.2968239 
1.037855 -0.3491792 0.2957103 
1.031334 -0.357811 0.2938376 
1.024934 -0.3659109 0.2917759 
1.018658 -0.3734694 0.2895334 
1.012466 -0.3806436 0.2871501 
1.006497 -0.3867505 0.2843779 
1.000688 -0.3919944 0.2812776 
0.9950232 -0.3965895 0.2779404 
0.9894048 -0.4009248 0.2745096 
0.9837288 -0.4056335 0.2712312 
0.9780141 -0.4106243 0.2680788 
0.9722436 -0.416018 0.265094 
0.966527 -0.4211284 0.2620122 
0.9608669 -0.4259893 0.2588394 
0.9553379 -0.4301375 0.2553951 
0.9498703 -0.4339906 0.2518318 
0.9445045 -0.4373078 0.2480671 
0.9392889 -0.4397539 0.2439625 
0.9341268 -0.4419487 0.2397478 
0.9290201 -0.4437628 0.2353905 
0.9237912 -0.4463923 0.2313633 
0.9185814 -0.4488776 0.2272841 
0.9127631 -0.4551494 0.2247638 
0.9075655 -0.4576259 0.2206921 
0.9023886 -0.4600753 0.2166165 
0.8973463 -0.4616188 0.2121645 
0.8919377 -0.4655461 0.2087109 
0.8860402 -0.4726191 0.206585 
0.8794776 -0.4840692 0.2063063 
0.8728789 -0.4959309 0.2062441 
0.8666319 -0.505685 0.2053081 
0.860495 -0.5148671 0.2041624 
0.8545692 -0.5227537 0.2024883 
0.8488446 -0.5294544 0.2003184 
0.8433475 -0.5347006 0.1975466 
0.8379145 -0.5396001 0.1946429 
0.8325728 -0.5439193 0.1914929 
0.8273266 -0.5476583 0.1881034 
0.8220893 -0.5513402 0.1846946 
0.8168874 -0.5548823 0.181239 
0.811722 -0.5581905 0.1776804 
0.806603 -0.5612096 0.1740004 
0.8015102 -0.5640724 0.170269 
0.7964818 -0.5664644 0.1663217 
0.7914884 -0.568701 0.1623173 
0.7866172 -0.5699977 0.1578978 
0.7818089 -0.5708109 0.1532618 
0.7770238 -0.5714599 0.1485563 
0.7724035 -0.5708267 0.1432695 
0.7678405 -0.5697134 0.1377649 
0.7633294 -0.5681545 0.1320523 
0.7588865 -0.5659876 0.1260572 
0.754451 -0.5636915 0.1199922 
0.74997 -0.5616792 0.1140483 
0.7454752 -0.559728 0.1081313 
0.7409758 -0.5577325 0.1021775 
0.7364199 -0.556163 0.09641086 
0.7318152 -0.5550066 0.09082998 
0.7271646 -0.5540948 0.08535843 
0.7225022 -0.5532903 0.07992708 
0.7178462 -0.5523904 0.07444463 
0.7132121 -0.5512166 0.06883428 
0.7086073 -0.5497522 0.06307399 
0.7040218 -0.5480822 0.05721506 
0.6994507 -0.5461466 0.05122722 
0.6948262 -0.5446805 0.04544351 
0.6901548 -0.5435883 0.03983504 
0.685425 -0.5429543 0.03444461 
0.6806192 -0.5430585 0.02939618 
0.6758051 -0.5432698 0.02439059 
0.6709856 -0.5434778 0.0193903 
0.6661143 -0.5442048 0.01463569 
0.6612408 -0.5449612 0.009891063 
0.6564233 -0.5450709 0.004831538 
0.6516212 -0.5450423 -0.0002934635 
0.6468178 -0.5449313 -0.005459979 
0.6420099 -0.5448221 -0.01063107 
0.6372468 -0.5442806 -0.01602203 
0.6325095 -0.543322 -0.02162015 
0.6278238 -0.5417246 -0.02753538 
0.623062 -0.5409388 -0.03305898 
0.6181016 -0.5425023 -0.03742521 
0.6124607 -0.5521839 -0.0377531 
0.6065269 -0.5657005 -0.03614221 
0.6008062 -0.5770974 -0.03555332 
0.5953059 -0.5859528 -0.03620933 
0.5899856 -0.5928236 -0.03784641 
0.5848368 -0.5976158 -0.0405063 
0.5797518 -0.601763 -0.04348581 
0.57469 -0.6057379 -0.04654041 
0.5696964 -0.6088375 -0.05003601 
0.5647519 -0.6113164 -0.05384081 
0.5598714 -0.612997 -0.05805429 
0.5549978 -0.614547 -0.06232676 
0.55016 -0.6155686 -0.0668745 
0.5452989 -0.6170294 -0.07119007 
0.5404658 -0.617907 -0.075807 
0.535799 -0.6162409 -0.08174733 
0.5316305 -0.6063294 -0.09198251 
1.099081 -0.2410064 0.286081 
1.087738 -0.2725071 0.2925594 
1.079032 -0.291222 0.294323 
1.071098 -0.3063222 0.2947703 
1.064072 -0.3169892 0.2935743 
1.057154 -0.3272368 0.2922544 
1.049925 -0.3391874 0.2916007 
1.042917 -0.3501915 0.2906182 
1.036484 -0.3583057 0.2885508 
1.030095 -0.3662913 0.2864524 
1.023823 -0.3737758 0.2841893 
1.017703 -0.3805084 0.2816463 
1.011765 -0.3863502 0.27877 
1.00593 -0.3917444 0.2757322 
1.000178 -0.3967409 0.2725533 
0.9945316 -0.4011937 0.269165 
0.9888328 -0.4059898 0.2659302 
0.9830971 -0.4110502 0.2628019 
0.977348 -0.4162502 0.259753 
0.9716412 -0.4212639 0.2566307 
0.9659802 -0.4260945 0.2534523 
0.9603799 -0.4305954 0.250149 
0.9548817 -0.4345914 0.2466484 
0.9494922 -0.4380322 0.2429344 
0.9442172 -0.4408066 0.2389559 
0.9390262 -0.4431155 0.2347945 
0.9339026 -0.4450634 0.2304858 
0.9288276 -0.4466927 0.2260544 
0.9236972 -0.4487251 0.2217815 
0.9184796 -0.4512647 0.2177325 
0.9128996 -0.4560532 0.2146052 
0.9075537 -0.4594329 0.2109193 
0.9023816 -0.4618071 0.2068104 
0.8968428 -0.4664773 0.203668 
0.8906189 -0.4755639 0.2023927 
0.8838438 -0.4882825 0.2026725 
0.8771918 -0.5004137 0.2027389 
0.8709303 -0.5101824 0.2018294 
0.8648689 -0.5188142 0.2004608 
0.8589684 -0.5265237 0.1987229 
0.8532592 -0.5330661 0.1965023 
0.8478258 -0.5378493 0.1935384 
0.8424486 -0.5423129 0.1904491 
0.8371097 -0.5466114 0.1872906 
0.8318429 -0.550464 0.1839604 
0.8265989 -0.5541914 0.1805787 
0.8213613 -0.5579536 0.1772199 
0.8161573 -0.561537 0.1737855 
0.8110176 -0.5646614 0.1701607 
0.8059349 -0.5674512 0.1663915 
0.8009295 -0.5697217 0.162405 
0.7959481 -0.5717846 0.1583261 
0.7910963 -0.5729836 0.1538659 
0.7862729 -0.5739151 0.1492843 
0.7815118 -0.5744147 0.1445064 
0.7768801 -0.5738761 0.1392668 
0.7723134 -0.5728327 0.1337933 
